# .PCD v0.7 - Point Cloud Data file format
VERSION 0.7
FIELDS x y z
SIZE 4 4 4
TYPE F F F
COUNT 1 1 1
WIDTH 1590
HEIGHT 1
VIEWPOINT 0 0 0 1 0 0 0
POINTS 1590
DATA ascii
-1.9099523 -25.065908 0.58199877
-1.9441736 -25.086422 0.61213422
-1.9783949 -25.106934 0.64226973
-2.0126162 -25.127447 0.67240518
-2.0468373 -25.147959 0.70254064
-2.0810585 -25.168472 0.73267615
-2.1152799 -25.188984 0.7628116
-2.1495011 -25.209496 0.79294705
-2.1837223 -25.230009 0.82308257
-2.2179434 -25.250521 0.85321802
-2.2521648 -25.271034 0.88335347
-2.286386 -25.291546 0.91348898
-2.3206072 -25.312059 0.94362444
-2.3548286 -25.332571 0.97375989
-2.3890498 -25.353083 1.0038954
-2.4232709 -25.373596 1.0340308
-2.4574924 -25.394108 1.0641663
-2.4917135 -25.414621 1.0943018
-2.5259347 -25.435133 1.1244372
-2.5601561 -25.455645 1.1545727
-2.5943773 -25.476158 1.1847082
-2.6285985 -25.49667 1.2148436
-2.6628196 -25.517183 1.2449791
-2.697041 -25.537695 1.2751147
-2.7312622 -25.558208 1.30525
-2.7654834 -25.57872 1.3353856
-2.7997048 -25.599232 1.3655211
-2.833926 -25.619745 1.3956565
-2.8681471 -25.640257 1.425792
-2.9023685 -25.66077 1.4559275
-2.9365897 -25.681282 1.4860629
-2.9708109 -25.701794 1.5161984
-3.0050323 -25.722307 1.5463339
-3.0392535 -25.742819 1.5764693
-3.0734746 -25.763332 1.6066048
-3.1076958 -25.783844 1.6367403
-3.1419172 -25.804358 1.6668757
-3.1761384 -25.824869 1.6970112
-3.2103596 -25.845381 1.7271467
-3.244581 -25.865894 1.7572821
-3.2788022 -25.886406 1.7874177
-3.3130233 -25.906919 1.8175532
-3.3472447 -25.927431 1.8476886
-3.3814659 -25.947945 1.8778241
-3.4156871 -25.968456 1.9079596
-3.4499085 -25.988968 1.938095
-3.4841297 -26.009481 1.9682305
-3.5183508 -26.029993 1.9983659
-3.552572 -26.050507 2.0285015
-3.5867934 -26.071018 2.0586369
-3.6210146 -26.09153 2.0887723
-3.6552358 -26.112043 2.1189079
-3.6894572 -26.132555 2.1490433
-3.7236784 -26.153069 2.1791787
-3.7578995 -26.17358 2.2093143
-3.7921209 -26.194094 2.2394497
-3.8263421 -26.214605 2.2695851
-1.1228637 -24.511457 -0.054847982
-1.1570849 -24.531969 -0.024712512
-1.1913061 -24.552481 0.00542296
-1.2255274 -24.572994 0.035558432
-1.2597487 -24.593506 0.0656939
-1.2939699 -24.614019 0.095829375
-1.3281912 -24.634531 0.12596485
-1.3624125 -24.655045 0.15610032
-1.3966336 -24.675556 0.18623579
-1.4308549 -24.696068 0.21637127
-1.4650761 -24.716581 0.24650674
-1.4992974 -24.737093 0.2766422
-1.5335187 -24.757607 0.30677769
-1.5677398 -24.778118 0.33691314
-1.6019611 -24.798632 0.36704862
-1.6361823 -24.819143 0.3971841
-1.6704036 -24.839655 0.42731956
-1.7046249 -24.860168 0.45745504
-1.7388461 -24.88068 0.48759049
-1.7730674 -24.901194 0.517726
-1.8072886 -24.921705 0.54786146
-1.8415098 -24.942217 0.57799691
-1.8757311 -24.96273 0.60813236
-1.9099523 -24.983242 0.63826787
-1.9441736 -25.003756 0.66840333
-1.9783949 -25.024267 0.69853878
-2.0126162 -25.044781 0.72867429
-2.0468373 -25.065292 0.75880975
-2.0810585 -25.085804 0.7889452
-2.1152799 -25.106318 0.81908071
-2.1495011 -25.126829 0.84921616
-2.1837223 -25.147343 0.87935162
-2.2179434 -25.167854 0.90948713
-2.2521648 -25.188366 0.93962258
-2.286386 -25.208879 0.96975803
-2.3206072 -25.229391 0.99989355
-2.3548286 -25.249905 1.0300289
-2.3890498 -25.270416 1.0601645
-2.4232709 -25.29093 1.0903
-2.4574924 -25.311441 1.1204354
-2.4917135 -25.331953 1.1505709
-2.5259347 -25.352467 1.1807064
-2.5601561 -25.372978 1.2108418
-2.5943773 -25.393492 1.2409773
-2.6285985 -25.414003 1.2711128
-2.6628196 -25.434517 1.3012482
-2.697041 -25.455029 1.3313837
-2.7312622 -25.47554 1.3615192
-2.7654834 -25.496054 1.3916546
-2.7997048 -25.516565 1.4217901
-2.833926 -25.537079 1.4519256
-2.8681471 -25.55759 1.482061
-2.9023685 -25.578102 1.5121965
-2.9365897 -25.598616 1.5423321
-2.9708109 -25.619127 1.5724674
-3.0050323 -25.639641 1.602603
-3.0392535 -25.660152 1.6327385
-3.0734746 -25.680666 1.6628739
-3.1076958 -25.701178 1.6930094
-3.1419172 -25.721689 1.7231449
-3.1761384 -25.742203 1.7532803
-3.2103596 -25.762714 1.7834158
-3.244581 -25.783228 1.8135513
-3.2788022 -25.80374 1.8436867
-3.3130233 -25.824253 1.8738222
-3.3472447 -25.844765 1.9039577
-3.3814659 -25.865276 1.9340931
-3.4156871 -25.88579 1.9642286
-3.4499085 -25.906301 1.994364
-3.4841297 -25.926815 2.0244997
-3.5183508 -25.947327 2.054635
-3.552572 -25.967838 2.0847704
-3.5867934 -25.988352 2.1149061
-3.6210146 -26.008863 2.1450415
-3.6552358 -26.029377 2.1751769
-3.6894572 -26.049889 2.2053125
-3.7236784 -26.070402 2.2354479
-3.7578995 -26.090914 2.2655833
-3.7921209 -26.111425 2.2957189
-3.8263421 -26.131939 2.3258543
-1.0499554 -24.632635 -0.054537896
-1.0841765 -24.653149 -0.024402425
-1.1183978 -24.67366 0.0057330462
-1.1526191 -24.694172 0.035868518
-1.1868403 -24.714685 0.066003993
-1.2210616 -24.735197 0.096139461
-1.2552828 -24.755711 0.12627493
-1.2895041 -24.776222 0.15641041
-1.3237253 -24.796736 0.18654588
-1.3579465 -24.817247 0.21668135
-1.3921678 -24.837759 0.24681681
-1.4263891 -24.858273 0.2769523
-1.4606103 -24.878784 0.30708775
-1.4948316 -24.899298 0.33722323
-1.5290527 -24.919809 0.36735871
-1.563274 -24.940321 0.39749417
-1.5974953 -24.960835 0.42762965
-1.6317165 -24.981346 0.45776513
-1.6659378 -25.00186 0.48790058
-1.700159 -25.022371 0.51803607
-1.7343802 -25.042885 0.54817152
-1.7686015 -25.063396 0.57830703
-1.8028227 -25.083908 0.60844249
-1.837044 -25.104422 0.63857794
-1.8712653 -25.124933 0.66871339
-1.9054865 -25.145447 0.6988489
-1.9397078 -25.165958 0.72898436
-1.9739289 -25.186472 0.75911981
-2.0081501 -25.206984 0.78925532
-2.0423715 -25.227495 0.81939077
-2.0765927 -25.248009 0.84952623
-2.1108139 -25.26852 0.87966174
-2.1450353 -25.289034 0.90979719
-2.1792564 -25.309546 0.93993264
-2.2134776 -25.330057 0.97006816
-2.247699 -25.350571 1.0002036
-2.2819202 -25.371082 1.0303391
-2.3161414 -25.391596 1.0604745
-2.3503628 -25.412107 1.09061
-2.384584 -25.432621 1.1207455
-2.4188051 -25.453133 1.1508809
-2.4530263 -25.473644 1.1810164
-2.4872477 -25.494158 1.211152
-2.5214689 -25.514669 1.2412874
-2.5556901 -25.535183 1.2714229
-2.5899115 -25.555695 1.3015584
-2.6241326 -25.576206 1.3316938
-2.6583538 -25.59672 1.3618293
-2.6925752 -25.617231 1.3919648
-2.7267964 -25.637745 1.4221002
-2.7610176 -25.658257 1.4522357
-2.795239 -25.67877 1.4823712
-2.8294601 -25.699282 1.5125066
-2.8636813 -25.719793 1.5426421
-2.8979025 -25.740307 1.5727775
-2.9321239 -25.760818 1.602913
-2.9663451 -25.781332 1.6330485
-3.0005662 -25.801844 1.6631839
-3.0347877 -25.822357 1.6933194
-3.0690088 -25.842869 1.723455
-3.10323 -25.86338 1.7535903
-3.1374514 -25.883894 1.7837259
-3.1716726 -25.904406 1.8138614
-3.2058938 -25.924919 1.8439968
-3.2401152 -25.945431 1.8741323
-3.2743363 -25.965942 1.9042678
-3.3085575 -25.986456 1.9344032
-3.3427787 -26.006968 1.9645387
-3.3770001 -26.027481 1.9946742
-3.4112213 -26.047993 2.0248096
-3.4454424 -26.068506 2.0549452
-3.4796638 -26.089018 2.0850806
-3.513885 -26.109529 2.115216
-3.5481062 -26.130043 2.1453514
-3.5823276 -26.150555 2.175487
-3.6165488 -26.171068 2.2056224
-3.6507699 -26.19158 2.2357578
-3.6849914 -26.212093 2.2658935
-3.7192125 -26.232605 2.2960289
-3.7534337 -26.253117 2.3261642
-1.0499554 -24.549969 0.0017311921
-1.0841765 -24.57048 0.031866662
-1.1183978 -24.590994 0.062002134
-1.1526191 -24.611506 0.092137605
-1.1868403 -24.632019 0.12227308
-1.2210616 -24.652531 0.15240856
-1.2552828 -24.673044 0.18254402
-1.2895041 -24.693556 0.21267949
-1.3237253 -24.714067 0.24281496
-1.3579465 -24.734581 0.27295044
-1.3921678 -24.755093 0.30308589
-1.4263891 -24.775606 0.33322138
-1.4606103 -24.796118 0.36335686
-1.4948316 -24.816629 0.39349231
-1.5290527 -24.837143 0.42362779
-1.563274 -24.857655 0.45376328
-1.5974953 -24.878168 0.48389873
-1.6317165 -24.89868 0.51403421
-1.6659378 -24.919193 0.54416966
-1.700159 -24.939705 0.57430518
-1.7343802 -24.960217 0.60444063
-1.7686015 -24.98073 0.63457608
-1.8028227 -25.001242 0.66471159
-1.837044 -25.021755 0.69484705
-1.8712653 -25.042267 0.7249825
-1.9054865 -25.062778 0.75511795
-1.9397078 -25.083292 0.78525347
-1.9739289 -25.103804 0.81538892
-2.0081501 -25.124317 0.84552437
-2.0423715 -25.144829 0.87565988
-2.0765927 -25.165342 0.90579534
-2.1108139 -25.185854 0.93593079
-2.1450353 -25.206366 0.9660663
-2.1792564 -25.226879 0.99620175
-2.2134776 -25.247391 1.0263373
-2.247699 -25.267904 1.0564727
-2.2819202 -25.288416 1.0866082
-2.3161414 -25.308929 1.1167437
-2.3503628 -25.329441 1.1468791
-2.384584 -25.349953 1.1770146
-2.4188051 -25.370466 1.2071501
-2.4530263 -25.390978 1.2372855
-2.4872477 -25.411491 1.267421
-2.5214689 -25.432003 1.2975565
-2.5556901 -25.452515 1.3276919
-2.5899115 -25.473028 1.3578274
-2.6241326 -25.49354 1.3879629
-2.6583538 -25.514053 1.4180983
-2.6925752 -25.534565 1.4482338
-2.7267964 -25.555079 1.4783694
-2.7610176 -25.57559 1.5085047
-2.795239 -25.596102 1.5386403
-2.8294601 -25.616615 1.5687757
-2.8636813 -25.637127 1.5989112
-2.8979025 -25.65764 1.6290467
-2.9321239 -25.678152 1.6591821
-2.9663451 -25.698666 1.6893176
-3.0005662 -25.719177 1.7194531
-3.0347877 -25.739689 1.7495885
-3.0690088 -25.760202 1.779724
-3.10323 -25.780714 1.8098595
-3.1374514 -25.801228 1.8399949
-3.1716726 -25.821739 1.8701304
-3.2058938 -25.842251 1.9002659
-3.2401152 -25.862764 1.9304013
-3.2743363 -25.883276 1.9605368
-3.3085575 -25.90379 1.9906723
-3.3427787 -25.924301 2.0208077
-3.3770001 -25.944815 2.0509434
-3.4112213 -25.965326 2.0810788
-3.4454424 -25.985838 2.1112142
-3.4796638 -26.006351 2.1413496
-3.513885 -26.026863 2.1714852
-3.5481062 -26.047377 2.2016206
-3.5823276 -26.067888 2.231756
-3.6165488 -26.0884 2.2618916
-3.6507699 -26.108913 2.292027
-3.6849914 -26.129425 2.3221624
-3.7192125 -26.149939 2.352298
-3.7534337 -26.17045 2.3824334
-4.7318516 -52.453018 -0.047856715
-4.760397 -52.449837 -0.0069293594
-4.7889419 -52.446655 0.033997998
-4.8174872 -52.443474 0.074925356
-4.8460321 -52.440292 0.11585271
-4.8745775 -52.437111 0.15678006
-4.9031224 -52.433926 0.19770743
-4.9316678 -52.430744 0.23863478
-4.9602127 -52.427563 0.27956215
-4.9887581 -52.424381 0.3204895
-5.017303 -52.4212 0.36141685
-5.0458484 -52.418018 0.4023442
-5.0743933 -52.414833 0.44327155
-5.1029387 -52.411652 0.48419893
-5.1314836 -52.40847 0.52512628
-5.1600289 -52.405289 0.56605363
-5.1885743 -52.402107 0.60698098
-5.2171192 -52.398926 0.64790833
-5.2456646 -52.395741 0.68883568
-5.2742095 -52.392559 0.72976303
-5.3027549 -52.389378 0.77069044
-5.3312998 -52.386196 0.81161779
-5.3598452 -52.383015 0.85254514
-5.3883901 -52.379833 0.89347249
-5.4169354 -52.376648 0.93439984
-5.4454803 -52.373466 0.97532719
-5.4740257 -52.370285 1.0162545
-5.5025706 -52.367104 1.057182
-5.531116 -52.363922 1.0981092
-5.5596609 -52.360741 1.1390367
-5.5882063 -52.357555 1.1799639
-5.6167512 -52.354374 1.2208914
-5.6452966 -52.351192 1.2618186
-5.6738415 -52.348011 1.3027461
-5.7023869 -52.34483 1.3436733
-5.7309318 -52.341648 1.3846008
-5.7594771 -52.338463 1.4255282
-5.7880225 -52.335281 1.4664555
-5.8165674 -52.3321 1.5073829
-5.8451128 -52.328918 1.5483102
-5.8736577 -52.325737 1.5892376
-5.9022031 -52.322552 1.6301649
-5.930748 -52.31937 1.6710923
-5.9592934 -52.316189 1.7120196
-5.9878383 -52.313007 1.752947
-6.0163836 -52.309826 1.7938743
-6.0449286 -52.306644 1.8348017
-6.0734739 -52.303459 1.8757291
-6.1020188 -52.300278 1.9166564
-6.1305642 -52.297096 1.9575838
-6.1591091 -52.293915 1.9985111
-6.1876545 -52.290733 2.0394385
-6.2161994 -52.287552 2.0803659
-6.2447448 -52.284367 2.1212931
-6.2732897 -52.281185 2.1622205
-6.3018351 -52.278004 2.2031479
-6.33038 -52.274822 2.2440753
-6.3589253 -52.271641 2.2850027
-6.3874707 -52.268459 2.3259299
-6.4160156 -52.265274 2.3668573
-6.444561 -52.262093 2.4077847
-6.4731059 -52.258911 2.4487121
-6.5016513 -52.25573 2.4896393
-6.5301962 -52.252548 2.5305667
-6.5587416 -52.249367 2.5714941
-6.5872865 -52.246181 2.6124215
-6.6158319 -52.243 2.6533489
-6.6443768 -52.239819 2.6942761
-6.6729221 -52.236637 2.7352035
-6.701467 -52.233456 2.7761309
-6.7300124 -52.230274 2.8170583
-6.7585573 -52.227089 2.8579855
-6.7871027 -52.223907 2.8989129
-6.8156476 -52.220726 2.9398403
-6.844193 -52.217545 2.9807677
-6.8727379 -52.214363 3.0216949
-6.9012833 -52.211182 3.0626223
-6.9298282 -52.207996 3.1035497
-6.9583735 -52.204815 3.1444771
-6.9869189 -52.201633 3.1854045
-4.7318516 -52.353321 -0.05560831
-4.760397 -52.35014 -0.014680955
-4.7889419 -52.346958 0.026246402
-4.8174872 -52.343773 0.067173757
-4.8460321 -52.340591 0.10810111
-4.8745775 -52.33741 0.14902847
-4.9031224 -52.334229 0.18995583
-4.9316678 -52.331047 0.23088318
-4.9602127 -52.327866 0.27181053
-4.9887581 -52.32468 0.31273788
-5.017303 -52.321499 0.35366526
-5.0458484 -52.318317 0.39459261
-5.0743933 -52.315136 0.43551996
-5.1029387 -52.311954 0.47644731
-5.1314836 -52.308773 0.51737469
-5.1600289 -52.305588 0.55830204
-5.1885743 -52.302406 0.5992294
-5.2171192 -52.299225 0.64015675
-5.2456646 -52.296043 0.6810841
-5.2742095 -52.292862 0.72201145
-5.3027549 -52.289677 0.7629388
-5.3312998 -52.286495 0.80386615
-5.3598452 -52.283314 0.84479356
-5.3883901 -52.280132 0.88572091
-5.4169354 -52.276951 0.92664826
-5.4454803 -52.273769 0.96757561
-5.4740257 -52.270584 1.008503
-5.5025706 -52.267403 1.0494304
-5.531116 -52.264221 1.0903577
-5.5596609 -52.26104 1.1312851
-5.5882063 -52.257858 1.1722124
-5.6167512 -52.254677 1.2131398
-5.6452966 -52.251492 1.2540671
-5.6738415 -52.24831 1.2949945
-5.7023869 -52.245129 1.3359218
-5.7309318 -52.241947 1.3768492
-5.7594771 -52.238766 1.4177765
-5.7880225 -52.235584 1.4587039
-5.8165674 -52.232399 1.4996313
-5.8451128 -52.229218 1.5405586
-5.8736577 -52.226036 1.581486
-5.9022031 -52.222855 1.6224133
-5.930748 -52.219673 1.6633407
-5.9592934 -52.216492 1.704268
-5.9878383 -52.213306 1.7451954
-6.0163836 -52.210125 1.7861227
-6.0449286 -52.206944 1.8270501
-6.0734739 -52.203762 1.8679774
-6.1020188 -52.200581 1.9089048
-6.1305642 -52.197399 1.9498322
-6.1591091 -52.194214 1.9907595
-6.1876545 -52.191032 2.0316868
-6.2161994 -52.187851 2.0726142
-6.2447448 -52.184669 2.1135416
-6.2732897 -52.181488 2.154469
-6.3018351 -52.178307 2.1953962
-6.33038 -52.175121 2.2363236
-6.3589253 -52.17194 2.277251
-6.3874707 -52.168758 2.3181784
-6.4160156 -52.165577 2.3591058
-6.444561 -52.162395 2.400033
-6.4731059 -52.159214 2.4409604
-6.5016513 -52.156029 2.4818878
-6.5301962 -52.152847 2.5228152
-6.5587416 -52.149666 2.5637424
-6.5872865 -52.146484 2.6046698
-6.6158319 -52.143303 2.6455972
-6.6443768 -52.140121 2.6865246
-6.6729221 -52.136936 2.727452
-6.701467 -52.133755 2.7683792
-6.7300124 -52.130573 2.8093066
-6.7585573 -52.127392 2.850234
-6.7871027 -52.12421 2.8911614
-6.8156476 -52.121029 2.9320886
-6.844193 -52.117844 2.973016
-6.8727379 -52.114662 3.0139434
-6.9012833 -52.111481 3.0548708
-6.9298282 -52.108299 3.095798
-6.9583735 -52.105118 3.1367254
-6.9869189 -52.101936 3.1776528
-4.6497498 -52.448593 0.0090618115
-4.6782951 -52.445412 0.049989168
-4.70684 -52.44223 0.090916522
-4.7353854 -52.439049 0.13184388
-4.7639303 -52.435867 0.17277123
-4.7924757 -52.432682 0.2136986
-4.8210206 -52.429501 0.25462595
-4.849566 -52.426319 0.2955533
-4.8781109 -52.423138 0.33648068
-4.9066563 -52.419956 0.37740803
-4.9352016 -52.416775 0.41833538
-4.9637465 -52.413589 0.45926273
-4.9922919 -52.410408 0.50019008
-5.0208368 -52.407227 0.54111743
-5.0493822 -52.404045 0.58204478
-5.0779271 -52.400864 0.62297213
-5.1064725 -52.397682 0.66389954
-5.1350174 -52.394497 0.70482689
-5.1635628 -52.391315 0.74575424
-5.1921077 -52.388134 0.78668159
-5.2206531 -52.384953 0.82760894
-5.249198 -52.381771 0.86853629
-5.2777433 -52.37859 0.90946364
-5.3062882 -52.375404 0.95039099
-5.3348336 -52.372223 0.99131835
-5.3633785 -52.369041 1.0322458
-5.3919239 -52.36586 1.073173
-5.4204688 -52.362679 1.1141005
-5.4490142 -52.359497 1.1550277
-5.4775591 -52.356312 1.1959552
-5.5061045 -52.35313 1.2368824
-5.5346498 -52.349949 1.2778099
-5.5631948 -52.346767 1.3187373
-5.5917401 -52.343586 1.3596646
-5.620285 -52.340405 1.400592
-5.6488304 -52.337219 1.4415193
-5.6773753 -52.334038 1.4824467
-5.7059207 -52.330856 1.523374
-5.7344656 -52.327675 1.5643014
-5.763011 -52.324493 1.6052287
-5.7915559 -52.321312 1.6461561
-5.8201013 -52.318127 1.6870835
-5.8486462 -52.314945 1.7280108
-5.8771915 -52.311764 1.7689382
-5.9057364 -52.308582 1.8098655
-5.9342818 -52.305401 1.8507929
-5.9628267 -52.302219 1.8917202
-5.9913721 -52.299034 1.9326476
-6.019917 -52.295853 1.9735749
-6.0484624 -52.292671 2.0145023
-6.0770073 -52.28949 2.0554297
-6.1055527 -52.286308 2.0963571
-6.1340981 -52.283127 2.1372843
-6.162643 -52.279942 2.1782117
-6.1911883 -52.27676 2.2191391
-6.2197332 -52.273579 2.2600665
-6.2482786 -52.270397 2.3009937
-6.2768235 -52.267216 2.3419211
-6.3053689 -52.264034 2.3828485
-6.3339138 -52.260849 2.4237759
-6.3624592 -52.257668 2.4647031
-6.3910041 -52.254486 2.5056305
-6.4195495 -52.251305 2.5465579
-6.4480944 -52.248123 2.5874853
-6.4766397 -52.244942 2.6284127
-6.5051847 -52.241756 2.6693399
-6.53373 -52.238575 2.7102673
-6.5622749 -52.235394 2.7511947
-6.5908203 -52.232212 2.7921221
-6.6193652 -52.229031 2.8330493
-6.6479106 -52.225849 2.8739767
-6.676456 -52.222664 2.9149041
-6.7050009 -52.219482 2.9558315
-6.7335463 -52.216301 2.9967589
-6.7620912 -52.21312 3.0376861
-6.7906365 -52.209938 3.0786135
-6.8191814 -52.206757 3.1195409
-6.8477268 -52.203571 3.1604683
-6.8762717 -52.20039 3.2013955
-6.9048171 -52.197208 3.2423229
-4.6497498 -52.348896 0.0013102165
-4.6782951 -52.345715 0.042237572
-4.70684 -52.342529 0.08316493
-4.7353854 -52.339348 0.12409229
-4.7639303 -52.336166 0.16501965
-4.7924757 -52.332985 0.205947
-4.8210206 -52.329803 0.24687436
-4.849566 -52.326622 0.28780171
-4.8781109 -52.323437 0.32872906
-4.9066563 -52.320255 0.36965641
-4.9352016 -52.317074 0.41058379
-4.9637465 -52.313892 0.45151114
-4.9922919 -52.310711 0.4924385
-5.0208368 -52.307529 0.53336585
-5.0493822 -52.304344 0.5742932
-5.0779271 -52.301163 0.61522055
-5.1064725 -52.297981 0.6561479
-5.1350174 -52.2948 0.69707525
-5.1635628 -52.291618 0.73800266
-5.1921077 -52.288437 0.77893001
-5.2206531 -52.285252 0.81985736
-5.249198 -52.28207 0.86078471
-5.2777433 -52.278889 0.90171206
-5.3062882 -52.275707 0.94263941
-5.3348336 -52.272526 0.98356676
-5.3633785 -52.269344 1.0244942
-5.3919239 -52.266159 1.0654215
-5.4204688 -52.262978 1.1063489
-5.4490142 -52.259796 1.1472762
-5.4775591 -52.256615 1.1882036
-5.5061045 -52.253433 1.2291309
-5.5346498 -52.250252 1.2700583
-5.5631948 -52.247066 1.3109856
-5.5917401 -52.243885 1.351913
-5.620285 -52.240704 1.3928404
-5.6488304 -52.237522 1.4337677
-5.6773753 -52.234341 1.4746951
-5.7059207 -52.231159 1.5156224
-5.7344656 -52.227974 1.5565498
-5.763011 -52.224792 1.5974771
-5.7915559 -52.221611 1.6384045
-5.8201013 -52.21843 1.6793318
-5.8486462 -52.215248 1.7202592
-5.8771915 -52.212067 1.7611866
-5.9057364 -52.208881 1.8021139
-5.9342818 -52.2057 1.8430413
-5.9628267 -52.202518 1.8839686
-5.9913721 -52.199337 1.924896
-6.019917 -52.196156 1.9658233
-6.0484624 -52.192974 2.0067506
-6.0770073 -52.189789 2.047678
-6.1055527 -52.186607 2.0886054
-6.1340981 -52.183426 2.1295328
-6.162643 -52.180244 2.1704602
-6.1911883 -52.177063 2.2113874
-6.2197332 -52.173882 2.2523148
-6.2482786 -52.170696 2.2932422
-6.2768235 -52.167515 2.3341696
-6.3053689 -52.164333 2.3750968
-6.3339138 -52.161152 2.4160242
-6.3624592 -52.15797 2.4569516
-6.3910041 -52.154789 2.497879
-6.4195495 -52.151604 2.5388062
-6.4480944 -52.148422 2.5797336
-6.4766397 -52.145241 2.620661
-6.5051847 -52.142059 2.6615884
-6.53373 -52.138878 2.7025158
-6.5622749 -52.135696 2.743443
-6.5908203 -52.132511 2.7843704
-6.6193652 -52.12933 2.8252978
-6.6479106 -52.126148 2.8662252
-6.676456 -52.122967 2.9071524
-6.7050009 -52.119785 2.9480798
-6.7335463 -52.116604 2.9890072
-6.7620912 -52.113419 3.0299346
-6.7906365 -52.110237 3.0708621
-6.8191814 -52.107056 3.1117892
-6.8477268 -52.103874 3.1527166
-6.8762717 -52.100693 3.193644
-6.9048171 -52.097511 3.2345715
nan nan nan
nan nan nan
nan nan nan
nan nan nan
nan nan nan
nan nan nan
nan nan nan
nan nan nan
nan nan nan
nan nan nan
nan nan nan
nan nan nan
nan nan nan
nan nan nan
nan nan nan
nan nan nan
nan nan nan
nan nan nan
nan nan nan
nan nan nan
nan nan nan
nan nan nan
nan nan nan
nan nan nan
nan nan nan
nan nan nan
-1.5261959 50.7565 1.0117217
-1.5528054 50.748577 1.0533051
-1.579415 50.740658 1.0948887
-1.6060245 50.732738 1.1364722
-1.632634 50.724815 1.1780558
-1.6592435 50.716896 1.2196393
-1.685853 50.708973 1.2612227
-1.7124625 50.701054 1.3028063
-1.7390721 50.69313 1.3443898
-1.7656816 50.685211 1.3859733
-1.7922912 50.677288 1.4275569
-1.8189007 50.669369 1.4691403
-1.8455102 50.661446 1.5107238
-1.8721198 50.653526 1.5523074
-1.8987293 50.645603 1.5938909
-1.9253389 50.637684 1.6354744
-1.9519484 50.629761 1.6770579
-1.9785579 50.621841 1.7186414
-2.0051675 50.613918 1.7602249
-2.0317769 50.605999 1.8018085
-2.0583866 50.598076 1.843392
-2.084996 50.590157 1.8849754
-2.1116056 50.582237 1.926559
-2.1382151 50.574314 1.9681425
-2.1648247 50.566395 2.009726
-2.1914341 50.558472 2.0513096
-2.2180438 50.550552 2.0928931
-2.2446532 50.542629 2.1344767
-2.2712629 50.53471 2.1760602
-2.2978723 50.526787 2.2176435
-2.3244817 50.518867 2.259227
-2.3510914 50.510944 2.3008106
-2.3777008 50.503025 2.3423941
-2.4043105 50.495102 2.3839777
-2.4309199 50.487183 2.4255612
-2.4575295 50.479259 2.4671447
-2.484139 50.47134 2.5087283
-2.5107486 50.463417 2.5503118
-2.537358 50.455498 2.5918953
-2.5639677 50.447575 2.6334786
-2.5905771 50.439655 2.6750622
-2.6171868 50.431736 2.7166457
-2.6437962 50.423813 2.7582293
-2.6704059 50.415894 2.7998128
-2.6970153 50.40797 2.8413963
-2.7236247 50.400051 2.8829799
-2.7502344 50.392128 2.9245634
-2.7768438 50.384209 2.9661469
-2.8034534 50.376286 3.0077305
-2.8300629 50.368366 3.0493138
-2.8566725 50.360443 3.0908973
-2.8832819 50.352524 3.1324809
-2.9098916 50.344601 3.1740644
-2.936501 50.336681 3.2156479
nan nan nan
nan nan nan
nan nan nan
nan nan nan
nan nan nan
nan nan nan
nan nan nan
nan nan nan
nan nan nan
nan nan nan
nan nan nan
nan nan nan
nan nan nan
nan nan nan
nan nan nan
nan nan nan
nan nan nan
nan nan nan
nan nan nan
nan nan nan
nan nan nan
nan nan nan
nan nan nan
nan nan nan
nan nan nan
nan nan nan
-1.5261959 50.854733 1.0304339
-1.5528054 50.846813 1.0720174
-1.579415 50.83889 1.113601
-1.6060245 50.830971 1.1551845
-1.632634 50.823048 1.1967679
-1.6592435 50.815128 1.2383515
-1.685853 50.807205 1.279935
-1.7124625 50.799286 1.3215185
-1.7390721 50.791367 1.3631021
-1.7656816 50.783443 1.4046855
-1.7922912 50.775524 1.446269
-1.8189007 50.767601 1.4878526
-1.8455102 50.759682 1.5294361
-1.8721198 50.751759 1.5710196
-1.8987293 50.743839 1.6126031
-1.9253389 50.735916 1.6541866
-1.9519484 50.727997 1.6957701
-1.9785579 50.720074 1.7373537
-2.0051675 50.712154 1.7789372
-2.0317769 50.704231 1.8205206
-2.0583866 50.696312 1.8621042
-2.084996 50.688389 1.9036877
-2.1116056 50.68047 1.9452713
-2.1382151 50.672546 1.9868548
-2.1648247 50.664627 2.0284383
-2.1914341 50.656704 2.0700219
-2.2180438 50.648785 2.1116054
-2.2446532 50.640865 2.1531887
-2.2712629 50.632942 2.1947722
-2.2978723 50.625023 2.2363558
-2.3244817 50.6171 2.2779393
-2.3510914 50.60918 2.3195229
-2.3777008 50.601257 2.3611064
-2.4043105 50.593338 2.4026899
-2.4309199 50.585415 2.4442735
-2.4575295 50.577496 2.485857
-2.484139 50.569572 2.5274405
-2.5107486 50.561653 2.5690238
-2.537358 50.55373 2.6106074
-2.5639677 50.545811 2.6521909
-2.5905771 50.537888 2.6937745
-2.6171868 50.529968 2.735358
-2.6437962 50.522045 2.7769415
-2.6704059 50.514126 2.8185251
-2.6970153 50.506203 2.8601086
-2.7236247 50.498283 2.9016922
-2.7502344 50.490364 2.9432757
-2.7768438 50.482441 2.984859
-2.8034534 50.474522 3.0264425
-2.8300629 50.466599 3.0680261
-2.8566725 50.458679 3.1096096
-2.8832819 50.450756 3.1511931
-2.9098916 50.442837 3.1927767
-2.936501 50.434914 3.2343602
nan nan nan
nan nan nan
nan nan nan
nan nan nan
nan nan nan
nan nan nan
nan nan nan
nan nan nan
nan nan nan
nan nan nan
nan nan nan
nan nan nan
nan nan nan
nan nan nan
nan nan nan
nan nan nan
nan nan nan
nan nan nan
nan nan nan
nan nan nan
nan nan nan
nan nan nan
nan nan nan
nan nan nan
nan nan nan
nan nan nan
nan nan nan
nan nan nan
nan nan nan
-1.5213619 50.722778 1.1887512
-1.5479715 50.714855 1.2303348
-1.574581 50.706936 1.2719183
-1.6011906 50.699017 1.3135018
-1.6278001 50.691093 1.3550854
-1.6544096 50.683174 1.3966688
-1.6810192 50.675251 1.4382523
-1.7076287 50.667332 1.4798359
-1.7342383 50.659409 1.5214194
-1.7608478 50.651489 1.5630029
-1.7874573 50.643566 1.6045864
-1.8140669 50.635647 1.6461699
-1.8406764 50.627724 1.6877534
-1.867286 50.619804 1.729337
-1.8938955 50.611881 1.7709205
-1.920505 50.603962 1.8125039
-1.9471145 50.596039 1.8540875
-1.973724 50.58812 1.895671
-2.0003335 50.580196 1.9372545
-2.0269432 50.572277 1.9788381
-2.0535526 50.564354 2.0204215
-2.0801623 50.556435 2.062005
-2.1067717 50.548515 2.1035886
-2.1333814 50.540592 2.1451721
-2.1599908 50.532673 2.1867557
-2.1866002 50.52475 2.2283392
-2.2132099 50.51683 2.2699227
-2.2398193 50.508907 2.311506
-2.2664289 50.500988 2.3530896
-2.2930384 50.493065 2.3946731
-2.319648 50.485146 2.4362566
-2.3462574 50.477222 2.4778402
-2.3728671 50.469303 2.5194237
-2.3994765 50.46138 2.5610073
-2.4260862 50.453461 2.6025908
-2.4526956 50.445538 2.6441743
-2.4793053 50.437618 2.6857579
-2.5059147 50.429695 2.7273412
-2.5325243 50.421776 2.7689247
-2.5591338 50.413853 2.8105083
-2.5857432 50.405933 2.8520918
-2.6123528 50.398014 2.8936753
-2.6389623 50.390091 2.9352589
-2.6655719 50.382172 2.9768424
-2.6921813 50.374249 3.0184259
-2.718791 50.366329 3.0600095
-2.7454004 50.358406 3.101593
-2.7720101 50.350487 3.1431763
-2.7986195 50.342564 3.1847599
-2.8252292 50.334644 3.2263434
-2.8518386 50.326721 3.2679269
nan nan nan
nan nan nan
nan nan nan
nan nan nan
nan nan nan
nan nan nan
nan nan nan
nan nan nan
nan nan nan
nan nan nan
nan nan nan
nan nan nan
nan nan nan
nan nan nan
nan nan nan
nan nan nan
nan nan nan
nan nan nan
nan nan nan
nan nan nan
nan nan nan
nan nan nan
nan nan nan
nan nan nan
nan nan nan
nan nan nan
nan nan nan
nan nan nan
nan nan nan
-1.5213619 50.821011 1.2074635
-1.5479715 50.813091 1.249047
-1.574581 50.805168 1.2906306
-1.6011906 50.797249 1.332214
-1.6278001 50.789326 1.3737975
-1.6544096 50.781406 1.4153811
-1.6810192 50.773483 1.4569646
-1.7076287 50.765564 1.4985482
-1.7342383 50.757645 1.5401316
-1.7608478 50.749722 1.5817151
-1.7874573 50.741802 1.6232986
-1.8140669 50.733879 1.6648822
-1.8406764 50.72596 1.7064657
-1.867286 50.718037 1.7480491
-1.8938955 50.710117 1.7896327
-1.920505 50.702194 1.8312162
-1.9471145 50.694275 1.8727998
-1.973724 50.686352 1.9143833
-2.0003335 50.678432 1.9559667
-2.0269432 50.670509 1.9975502
-2.0535526 50.66259 2.0391338
-2.0801623 50.654667 2.0807173
-2.1067717 50.646748 2.1223009
-2.1333814 50.638824 2.1638844
-2.1599908 50.630905 2.2054679
-2.1866002 50.622982 2.2470512
-2.2132099 50.615063 2.2886348
-2.2398193 50.607143 2.3302183
-2.2664289 50.59922 2.3718019
-2.2930384 50.591301 2.4133854
-2.319648 50.583378 2.4549689
-2.3462574 50.575459 2.4965525
-2.3728671 50.567535 2.538136
-2.3994765 50.559616 2.5797195
-2.4260862 50.551693 2.6213031
-2.4526956 50.543774 2.6628864
-2.4793053 50.535851 2.7044699
-2.5059147 50.527931 2.7460535
-2.5325243 50.520008 2.787637
-2.5591338 50.512089 2.8292205
-2.5857432 50.504166 2.8708041
-2.6123528 50.496246 2.9123876
-2.6389623 50.488323 2.9539711
-2.6655719 50.480404 2.9955547
-2.6921813 50.472481 3.0371382
-2.718791 50.464561 3.0787215
-2.7454004 50.456642 3.1203051
-2.7720101 50.448719 3.1618886
-2.7986195 50.4408 3.2034721
-2.8252292 50.432877 3.2450557
-2.8518386 50.424957 3.2866392
-7.4483509 17.473549 0.063915975
-7.4431152 17.500885 0.1054528
-7.4378791 17.528221 0.14698961
-7.4326429 17.555557 0.18852644
-7.4274073 17.582893 0.23006326
-7.4221711 17.610229 0.2716001
-7.4169354 17.637568 0.31313691
-7.4116993 17.664904 0.35467374
-7.4064636 17.69224 0.39621055
-7.4012275 17.719576 0.43774739
-7.3959918 17.746912 0.4792842
-7.3907557 17.774248 0.52082103
-7.38552 17.801584 0.56235784
-7.3802838 17.828922 0.60389465
-7.3750477 17.856258 0.64543152
-7.369812 17.883595 0.68696833
-7.3645759 17.910931 0.72850513
-7.3593402 17.938267 0.77004194
-7.354104 17.965603 0.81157881
-7.3488684 17.992939 0.85311562
-7.3436322 18.020275 0.89465243
-7.3383965 18.047613 0.93618929
-7.3331604 18.074949 0.9777261
-7.3279247 18.102285 1.0192629
-7.3226886 18.129622 1.0607997
-7.3174524 18.156958 1.1023365
-7.3122168 18.184294 1.1438733
-7.3069806 18.21163 1.1854103
-7.3017449 18.238966 1.2269471
-7.2965088 18.266304 1.2684839
-7.2912731 18.29364 1.3100207
-7.286037 18.320976 1.3515575
-7.2808013 18.348312 1.3930943
-7.2755651 18.375648 1.4346311
-7.2703295 18.402985 1.4761679
-7.2650933 18.430321 1.5177048
-7.2598572 18.457659 1.5592417
-7.2546215 18.484995 1.6007785
-7.2493854 18.512331 1.6423153
-7.2441497 18.539667 1.6838521
-7.2389135 18.567003 1.7253889
-7.2336779 18.594339 1.7669257
-7.2284417 18.621675 1.8084625
-7.223206 18.649012 1.8499994
-7.2179699 18.67635 1.8915362
-7.2127342 18.703686 1.933073
-7.2074981 18.731022 1.9746099
-7.2022619 18.758358 2.0161467
-7.1970263 18.785694 2.0576835
-7.1917901 18.81303 2.0992203
-7.1865544 18.840366 2.1407571
-7.1813183 18.867704 2.1822939
-7.1760826 18.895041 2.2238307
-7.1708465 18.922377 2.2653675
-7.1656108 18.949713 2.3069046
-7.1603746 18.977049 2.3484414
-7.1551385 19.004385 2.3899782
-7.1499028 19.031721 2.431515
-7.1446667 19.059057 2.4730518
-7.139431 19.086395 2.5145886
-7.1341949 19.113731 2.5561254
-7.1289592 19.141068 2.5976622
-7.123723 19.168404 2.639199
-7.1184874 19.19574 2.6807358
-7.1132512 19.223076 2.7222726
-7.1080155 19.250412 2.7638094
-7.1027794 19.27775 2.8053463
-7.0975432 19.305086 2.8468831
-7.0923076 19.332422 2.8884199
-7.0870714 19.359758 2.9299569
-7.0818357 19.387094 2.9714937
-7.0765996 19.414431 3.0130305
-7.0713639 19.441767 3.0545673
-7.0661278 19.469103 3.0961041
-7.0608921 19.496441 3.137641
-7.055656 19.523777 3.1791778
-7.0504203 19.551113 3.2207146
-7.0451841 19.578449 3.2622514
-7.039948 19.605785 3.3037882
-7.0347123 19.633121 3.345325
-7.4483509 17.557081 0.0089409677
-7.4431152 17.584417 0.050477792
-7.4378791 17.611753 0.092014611
-7.4326429 17.63909 0.13355143
-7.4274073 17.666428 0.17508826
-7.4221711 17.693764 0.21662508
-7.4169354 17.7211 0.2581619
-7.4116993 17.748436 0.29969874
-7.4064636 17.775772 0.34123555
-7.4012275 17.803108 0.38277239
-7.3959918 17.830444 0.42430919
-7.3907557 17.857782 0.46584603
-7.38552 17.885118 0.50738287
-7.3802838 17.912455 0.54891968
-7.3750477 17.939791 0.59045649
-7.369812 17.967127 0.63199329
-7.3645759 17.994463 0.67353016
-7.3593402 18.021799 0.71506697
-7.354104 18.049135 0.75660378
-7.3488684 18.076473 0.79814059
-7.3436322 18.103809 0.83967745
-7.3383965 18.131145 0.88121426
-7.3331604 18.158482 0.92275107
-7.3279247 18.185818 0.96428794
-7.3226886 18.213154 1.0058247
-7.3174524 18.24049 1.0473616
-7.3122168 18.267828 1.0888984
-7.3069806 18.295164 1.1304352
-7.3017449 18.3225 1.171972
-7.2965088 18.349836 1.2135088
-7.2912731 18.377172 1.2550457
-7.286037 18.404509 1.2965825
-7.2808013 18.431845 1.3381193
-7.2755651 18.459181 1.3796562
-7.2703295 18.486519 1.421193
-7.2650933 18.513855 1.4627298
-7.2598572 18.541191 1.5042666
-7.2546215 18.568527 1.5458034
-7.2493854 18.595863 1.5873402
-7.2441497 18.623199 1.628877
-7.2389135 18.650536 1.6704139
-7.2336779 18.677874 1.7119508
-7.2284417 18.70521 1.7534876
-7.223206 18.732546 1.7950244
-7.2179699 18.759882 1.8365612
-7.2127342 18.787218 1.878098
-7.2074981 18.814554 1.9196348
-7.2022619 18.84189 1.9611716
-7.1970263 18.869226 2.0027084
-7.1917901 18.896564 2.0442452
-7.1865544 18.923901 2.0857821
-7.1813183 18.951237 2.1273189
-7.1760826 18.978573 2.1688559
-7.1708465 19.005909 2.2103927
-7.1656108 19.033245 2.2519295
-7.1603746 19.060581 2.2934663
-7.1551385 19.087919 2.3350031
-7.1499028 19.115255 2.3765399
-7.1446667 19.142591 2.4180768
-7.139431 19.169928 2.4596136
-7.1341949 19.197264 2.5011504
-7.1289592 19.2246 2.5426872
-7.123723 19.251936 2.584224
-7.1184874 19.279272 2.6257608
-7.1132512 19.30661 2.6672976
-7.1080155 19.333946 2.7088344
-7.1027794 19.361282 2.7503712
-7.0975432 19.388618 2.791908
-7.0923076 19.415955 2.8334451
-7.0870714 19.443291 2.8749819
-7.0818357 19.470627 2.9165187
-7.0765996 19.497963 2.9580555
-7.0713639 19.525301 2.9995923
-7.0661278 19.552637 3.0411291
-7.0608921 19.579973 3.0826659
-7.055656 19.607309 3.1242027
-7.0504203 19.634645 3.1657395
-7.0451841 19.661982 3.2072763
-7.039948 19.689318 3.2488132
-7.0347123 19.716656 3.29035
-7.3489008 17.467793 0.055168517
-7.3436646 17.495129 0.09670534
-7.338429 17.522465 0.13824217
-7.3331928 17.549801 0.17977899
-7.3279572 17.577137 0.22131582
-7.322721 17.604473 0.26285264
-7.3174853 17.631809 0.30438945
-7.3122492 17.659145 0.34592628
-7.3070135 17.686483 0.38746309
-7.3017774 17.71382 0.42899993
-7.2965412 17.741156 0.47053674
-7.2913055 17.768492 0.51207358
-7.2860694 17.795828 0.55361038
-7.2808337 17.823164 0.59514725
-7.2755976 17.8505 0.63668406
-7.2703619 17.877836 0.67822087
-7.2651258 17.905174 0.71975768
-7.2598901 17.93251 0.76129454
-7.2546539 17.959846 0.80283135
-7.2494183 17.987183 0.84436816
-7.2441821 18.014519 0.88590497
-7.238946 18.041855 0.92744184
-7.2337103 18.069191 0.96897864
-7.2284741 18.096529 1.0105155
-7.2232385 18.123865 1.0520523
-7.2180023 18.151201 1.0935891
-7.2127666 18.178537 1.1351259
-7.2075305 18.205873 1.1766628
-7.2022948 18.23321 1.2181996
-7.1970587 18.260546 1.2597364
-7.191823 18.287882 1.3012732
-7.1865869 18.31522 1.34281
-7.1813507 18.342556 1.3843468
-7.176115 18.369892 1.4258837
-7.1708789 18.397228 1.4674205
-7.1656432 18.424564 1.5089574
-7.1604071 18.4519 1.5504942
-7.1551714 18.479237 1.592031
-7.1499352 18.506575 1.6335678
-7.1446996 18.533911 1.6751046
-7.1394634 18.561247 1.7166414
-7.1342278 18.588583 1.7581782
-7.1289916 18.615919 1.7997152
-7.1237555 18.643255 1.841252
-7.1185198 18.670591 1.8827888
-7.1132836 18.697927 1.9243256
-7.108048 18.725266 1.9658624
-7.1028118 18.752602 2.0073993
-7.0975761 18.779938 2.0489361
-7.09234 18.807274 2.0904729
-7.0871043 18.83461 2.1320097
-7.0818682 18.861946 2.1735466
-7.0766325 18.889282 2.2150834
-7.0713964 18.91662 2.2566202
-7.0661602 18.943956 2.298157
-7.0609245 18.971292 2.3396938
-7.0556884 18.998629 2.3812306
-7.0504527 19.025965 2.4227674
-7.0452166 19.053301 2.4643042
-7.0399809 19.080637 2.505841
-7.0347447 19.107973 2.5473778
-7.0295091 19.135311 2.5889146
-7.0242729 19.162647 2.6304517
-7.0190368 19.189983 2.6719885
-7.0138011 19.217319 2.7135253
-7.0085649 19.244656 2.7550621
-7.0033293 19.271992 2.7965989
-6.9980931 19.299328 2.8381357
-6.9928575 19.326666 2.8796725
-6.9876213 19.354002 2.9212093
-6.9823856 19.381338 2.9627461
-6.9771495 19.408674 3.004283
-6.9719138 19.43601 3.0458198
-6.9666777 19.463346 3.0873566
-6.9614415 19.490683 3.1288934
-6.9562058 19.518019 3.1704302
-6.9509697 19.545357 3.211967
-6.945734 19.572693 3.253504
-6.9404979 19.600029 3.2950408
-6.9352622 19.627365 3.3365777
-7.3489008 17.551325 0.00019351186
-7.3436646 17.578661 0.041730337
-7.338429 17.605997 0.08326716
-7.3331928 17.633333 0.12480398
-7.3279572 17.660669 0.16634081
-7.322721 17.688005 0.20787764
-7.3174853 17.715343 0.24941446
-7.3122492 17.74268 0.29095128
-7.3070135 17.770016 0.33248809
-7.3017774 17.797352 0.37402493
-7.2965412 17.824688 0.41556174
-7.2913055 17.852024 0.45709857
-7.2860694 17.87936 0.49863538
-7.2808337 17.906698 0.54017222
-7.2755976 17.934034 0.58170903
-7.2703619 17.96137 0.62324584
-7.2651258 17.988707 0.6647827
-7.2598901 18.016043 0.70631951
-7.2546539 18.043379 0.74785632
-7.2494183 18.070715 0.78939319
-7.2441821 18.098051 0.83092999
-7.238946 18.125389 0.8724668
-7.2337103 18.152725 0.91400361
-7.2284741 18.180061 0.95554048
-7.2232385 18.207397 0.99707729
-7.2180023 18.234734 1.0386142
-7.2127666 18.26207 1.080151
-7.2075305 18.289406 1.1216878
-7.2022948 18.316744 1.1632246
-7.1970587 18.34408 1.2047614
-7.191823 18.371416 1.2462982
-7.1865869 18.398752 1.287835
-7.1813507 18.426088 1.3293718
-7.176115 18.453424 1.3709087
-7.1708789 18.480761 1.4124455
-7.1656432 18.508097 1.4539824
-7.1604071 18.535435 1.4955192
-7.1551714 18.562771 1.537056
-7.1499352 18.590107 1.5785928
-7.1446996 18.617443 1.6201296
-7.1394634 18.644779 1.6616664
-7.1342278 18.672115 1.7032033
-7.1289916 18.699451 1.7447401
-7.1237555 18.726789 1.7862769
-7.1185198 18.754126 1.8278137
-7.1132836 18.781462 1.8693506
-7.108048 18.808798 1.9108874
-7.1028118 18.836134 1.9524242
-7.0975761 18.86347 1.9939611
-7.09234 18.890806 2.0354979
-7.0871043 18.918142 2.0770347
-7.0818682 18.94548 2.1185715
-7.0766325 18.972816 2.1601083
-7.0713964 19.000153 2.2016451
-7.0661602 19.027489 2.2431819
-7.0609245 19.054825 2.2847188
-7.0556884 19.082161 2.3262556
-7.0504527 19.109497 2.3677924
-7.0452166 19.136833 2.4093292
-7.0399809 19.164171 2.450866
-7.0347447 19.191507 2.492403
-7.0295091 19.218843 2.5339398
-7.0242729 19.24618 2.5754766
-7.0190368 19.273516 2.6170135
-7.0138011 19.300852 2.6585503
-7.0085649 19.328188 2.7000871
-7.0033293 19.355526 2.7416239
-6.9980931 19.382862 2.7831607
-6.9928575 19.410198 2.8246975
-6.9876213 19.437534 2.8662343
-6.9823856 19.46487 2.9077711
-6.9771495 19.492207 2.9493079
-6.9719138 19.519543 2.9908447
-6.9666777 19.546879 3.0323815
-6.9614415 19.574217 3.0739183
-6.9562058 19.601553 3.1154554
-6.9509697 19.628889 3.1569922
-6.945734 19.656225 3.198529
-6.9404979 19.683561 3.2400658
-6.9352622 19.710897 3.2816026
-5.0378766 21.551859 0.047424763
-5.015295 21.552683 0.092027329
-4.992713 21.553507 0.13662989
-4.9701314 21.554331 0.18123247
-4.9475498 21.555155 0.22583503
-4.9249682 21.555979 0.2704376
-4.9023867 21.556803 0.31504017
-4.8798046 21.557627 0.35964271
-4.857223 21.558451 0.40424529
-4.8346415 21.559275 0.44884786
-4.8120599 21.560099 0.49345043
-4.7894783 21.560923 0.53805298
-4.7668962 21.561747 0.58265555
-4.7443147 21.562571 0.62725812
-4.7217331 21.563395 0.67186069
-4.6991515 21.564219 0.71646327
-4.6765695 21.565042 0.76106584
-4.6539879 21.565866 0.80566841
-4.6314063 21.56669 0.85027093
-4.6088247 21.567514 0.8948735
-4.5862432 21.568338 0.93947607
-4.5636611 21.569162 0.98407865
-4.5410795 21.569986 1.0286812
-4.5184979 21.57081 1.0732838
-4.4959164 21.571634 1.1178863
-4.4733348 21.572458 1.1624889
-4.4507527 21.573282 1.2070915
-4.4281712 21.574106 1.2516941
-4.4055896 21.57493 1.2962966
-4.383008 21.575754 1.3408992
-4.3604264 21.576578 1.3855017
-4.3378444 21.577402 1.4301043
-4.3152628 21.578226 1.4747069
-4.2926812 21.57905 1.5193094
-4.2700996 21.579874 1.563912
-4.2475176 21.580698 1.6085145
-4.224936 21.581522 1.6531172
-4.2023544 21.582346 1.6977197
-4.1797729 21.58317 1.7423223
-4.1571913 21.583994 1.7869248
-4.1346092 21.584818 1.8315274
-4.1120276 21.585642 1.87613
-4.0894461 21.586468 1.9207325
-4.0668645 21.587292 1.9653351
-4.0442829 21.588116 2.0099378
-4.0217009 21.58894 2.0545402
-3.9991193 21.589764 2.0991428
-3.9765377 21.590588 2.1437454
-3.9539561 21.591412 2.1883478
-3.9313743 21.592236 2.2329504
-3.9087927 21.59306 2.2775531
-3.8862109 21.593884 2.3221557
-3.8636293 21.594707 2.3667581
-3.8410475 21.595531 2.4113607
-3.8184659 21.596355 2.4559634
-3.7958844 21.597179 2.500566
-3.7733026 21.598003 2.5451684
-3.750721 21.598827 2.589771
-3.7281392 21.599651 2.6343737
-3.7055576 21.600475 2.6789761
-3.6829758 21.601299 2.7235787
-3.6603942 21.602123 2.7681813
-3.6378126 21.602947 2.812784
-3.6152308 21.603771 2.8573864
-3.5926492 21.604595 2.901989
-3.5700674 21.605419 2.9465916
-3.5474858 21.606243 2.991194
-3.5249043 21.607067 3.0357966
-3.5023224 21.607891 3.0803993
-3.4797409 21.608715 3.1250019
-3.457159 21.609539 3.1696043
-3.4345775 21.610363 3.2142069
-3.4119956 21.611187 3.2588096
-3.3894141 21.612011 3.3034122
-3.3668325 21.612835 3.3480146
-3.3442507 21.613659 3.3926172
-3.3216691 21.614483 3.4372199
-3.2990873 21.615307 3.4818223
-3.2765057 21.616131 3.5264249
-3.2539241 21.616955 3.5710275
-5.0378766 21.651842 0.045577675
-5.015295 21.652666 0.090180241
-4.992713 21.65349 0.13478281
-4.9701314 21.654314 0.17938536
-4.9475498 21.655138 0.22398794
-4.9249682 21.655962 0.26859051
-4.9023867 21.656786 0.31319308
-4.8798046 21.65761 0.35779563
-4.857223 21.658434 0.4023982
-4.8346415 21.659258 0.44700077
-4.8120599 21.660082 0.49160334
-4.7894783 21.660906 0.53620589
-4.7668962 21.66173 0.58080846
-4.7443147 21.662554 0.62541103
-4.7217331 21.663378 0.67001361
-4.6991515 21.664202 0.71461618
-4.6765695 21.665026 0.75921875
-4.6539879 21.66585 0.80382133
-4.6314063 21.666674 0.84842384
-4.6088247 21.667498 0.89302641
-4.5862432 21.668322 0.93762898
-4.5636611 21.669146 0.98223156
-4.5410795 21.66997 1.0268341
-4.5184979 21.670794 1.0714366
-4.4959164 21.671618 1.1160393
-4.4733348 21.672441 1.1606418
-4.4507527 21.673265 1.2052444
-4.4281712 21.674089 1.2498469
-4.4055896 21.674913 1.2944496
-4.383008 21.675737 1.3390521
-4.3604264 21.676561 1.3836547
-4.3378444 21.677385 1.4282572
-4.3152628 21.678209 1.4728597
-4.2926812 21.679033 1.5174624
-4.2700996 21.679857 1.5620649
-4.2475176 21.680681 1.6066675
-4.224936 21.681505 1.65127
-4.2023544 21.682329 1.6958727
-4.1797729 21.683153 1.7404752
-4.1571913 21.683977 1.7850777
-4.1346092 21.684801 1.8296803
-4.1120276 21.685625 1.8742828
-4.0894461 21.686449 1.9188855
-4.0668645 21.687273 1.963488
-4.0442829 21.688097 2.0080905
-4.0217009 21.688921 2.0526931
-3.9991193 21.689745 2.0972958
-3.9765377 21.690569 2.1418984
-3.9539561 21.691393 2.1865008
-3.9313743 21.692217 2.2311034
-3.9087927 21.693041 2.2757061
-3.8862109 21.693865 2.3203084
-3.8636293 21.694689 2.3649111
-3.8410475 21.695513 2.4095137
-3.8184659 21.696337 2.4541163
-3.7958844 21.697161 2.4987187
-3.7733026 21.697985 2.5433214
-3.750721 21.698809 2.587924
-3.7281392 21.699633 2.6325264
-3.7055576 21.700457 2.677129
-3.6829758 21.701283 2.7217317
-3.6603942 21.702106 2.7663343
-3.6378126 21.70293 2.8109367
-3.6152308 21.703754 2.8555393
-3.5926492 21.704578 2.900142
-3.5700674 21.705402 2.9447443
-3.5474858 21.706226 2.989347
-3.5249043 21.70705 3.0339496
-3.5023224 21.707874 3.0785522
-3.4797409 21.708698 3.1231546
-3.457159 21.709522 3.1677573
-3.4345775 21.710346 3.2123599
-3.4119956 21.71117 3.2569625
-3.3894141 21.711994 3.3015649
-3.3668325 21.712818 3.3461676
-3.3442507 21.713642 3.3907702
-3.3216691 21.714466 3.4353726
-3.2990873 21.71529 3.4799752
-3.2765057 21.716114 3.5245779
-3.2539241 21.716938 3.5691805
-4.9486561 21.551025 0.002269113
-4.9260745 21.551849 0.046871681
-4.9034929 21.552673 0.091474243
-4.8809114 21.553497 0.13607681
-4.8583293 21.554321 0.18067938
-4.8357477 21.555145 0.22528194
-4.8131661 21.555969 0.2698845
-4.7905846 21.556793 0.31448707
-4.7680025 21.557617 0.35908964
-4.7454209 21.558441 0.40369222
-4.7228394 21.559265 0.44829476
-4.7002578 21.560089 0.49289733
-4.6776762 21.560913 0.5374999
-4.6550941 21.561737 0.58210248
-4.6325126 21.562561 0.62670505
-4.609931 21.563385 0.67130762
-4.5873494 21.564209 0.7159102
-4.5647678 21.565033 0.76051271
-4.5421858 21.565857 0.80511528
-4.5196042 21.566681 0.84971786
-4.4970226 21.567505 0.89432043
-4.4744411 21.568329 0.938923
-4.4518595 21.569153 0.98352557
-4.4292774 21.569977 1.0281281
-4.4066958 21.570801 1.0727307
-4.3841143 21.571625 1.1173333
-4.3615327 21.572449 1.1619358
-4.3389511 21.573273 1.2065384
-4.3163691 21.574097 1.251141
-4.2937875 21.574921 1.2957436
-4.2712059 21.575745 1.3403461
-4.2486243 21.576569 1.3849486
-4.2260423 21.577393 1.4295512
-4.2034607 21.578217 1.4741538
-4.1808791 21.579041 1.5187564
-4.1582975 21.579865 1.5633589
-4.135716 21.580688 1.6079615
-4.1131339 21.581512 1.652564
-4.0905523 21.582336 1.6971667
-4.0679708 21.58316 1.7417692
-4.0453892 21.583984 1.7863717
-4.0228076 21.584808 1.8309743
-4.0002255 21.585632 1.8755769
-3.977644 21.586456 1.9201795
-3.9550624 21.58728 1.964782
-3.9324806 21.588104 2.0093846
-3.909899 21.588928 2.0539873
-3.8873174 21.589752 2.0985897
-3.8647356 21.590576 2.1431923
-3.842154 21.5914 2.1877949
-3.8195722 21.592224 2.2323973
-3.7969906 21.593048 2.277
-3.7744091 21.593872 2.3216026
-3.7518272 21.594696 2.3662052
-3.7292457 21.59552 2.4108076
-3.7066638 21.596344 2.4554102
-3.6840823 21.597168 2.5000129
-3.6615005 21.597992 2.5446153
-3.6389189 21.598816 2.5892179
-3.6163373 21.59964 2.6338205
-3.5937555 21.600464 2.6784232
-3.5711739 21.601288 2.7230256
-3.5485921 21.602112 2.7676282
-3.5260105 21.602936 2.8122308
-3.5034289 21.60376 2.8568335
-3.4808471 21.604584 2.9014359
-3.4582655 21.605408 2.9460385
-3.4356837 21.606232 2.9906411
-3.4131021 21.607056 3.0352435
-3.3905203 21.60788 3.0798461
-3.3679388 21.608704 3.1244488
-3.3453572 21.609528 3.1690514
-3.3227754 21.610352 3.2136538
-3.3001938 21.611176 3.2582564
-3.277612 21.612 3.3028591
-3.2550304 21.612823 3.3474615
-3.2324488 21.613647 3.3920641
-3.209867 21.614471 3.4366667
-3.1872854 21.615295 3.4812694
-3.1647036 21.616119 3.5258718
-4.9486561 21.651009 0.00042202394
-4.9260745 21.651833 0.045024589
-4.9034929 21.652657 0.089627154
-4.8809114 21.653481 0.13422972
-4.8583293 21.654305 0.17883229
-4.8357477 21.655128 0.22343485
-4.8131661 21.655952 0.26803741
-4.7905846 21.656776 0.31263998
-4.7680025 21.6576 0.35724255
-4.7454209 21.658424 0.40184513
-4.7228394 21.659248 0.44644767
-4.7002578 21.660072 0.49105024
-4.6776762 21.660896 0.53565282
-4.6550941 21.66172 0.58025539
-4.6325126 21.662544 0.62485796
-4.609931 21.663368 0.66946054
-4.5873494 21.664192 0.71406311
-4.5647678 21.665016 0.75866562
-4.5421858 21.66584 0.80326819
-4.5196042 21.666664 0.84787077
-4.4970226 21.667488 0.89247334
-4.4744411 21.668312 0.93707591
-4.4518595 21.669136 0.98167849
-4.4292774 21.66996 1.026281
-4.4066958 21.670784 1.0708836
-4.3841143 21.671608 1.1154861
-4.3615327 21.672432 1.1600888
-4.3389511 21.673256 1.2046913
-4.3163691 21.67408 1.2492939
-4.2937875 21.674904 1.2938964
-4.2712059 21.675728 1.338499
-4.2486243 21.676552 1.3831016
-4.2260423 21.677376 1.4277041
-4.2034607 21.6782 1.4723067
-4.1808791 21.679024 1.5169092
-4.1582975 21.679848 1.5615119
-4.135716 21.680672 1.6061144
-4.1131339 21.681496 1.650717
-4.0905523 21.68232 1.6953195
-4.0679708 21.683144 1.739922
-4.0453892 21.683968 1.7845247
-4.0228076 21.684792 1.8291272
-4.0002255 21.685616 1.8737298
-3.977644 21.68644 1.9183323
-3.9550624 21.687263 1.962935
-3.9324806 21.688087 2.0075376
-3.909899 21.688911 2.05214
-3.8873174 21.689735 2.0967426
-3.8647356 21.690559 2.1413453
-3.842154 21.691383 2.1859477
-3.8195722 21.692207 2.2305503
-3.7969906 21.693031 2.2751529
-3.7744091 21.693855 2.3197556
-3.7518272 21.694679 2.3643579
-3.7292457 21.695503 2.4089606
-3.7066638 21.696327 2.4535632
-3.6840823 21.697151 2.4981656
-3.6615005 21.697975 2.5427682
-3.6389189 21.698799 2.5873709
-3.6163373 21.699623 2.6319735
-3.5937555 21.700447 2.6765759
-3.5711739 21.701271 2.7211785
-3.5485921 21.702095 2.7657812
-3.5260105 21.702919 2.8103838
-3.5034289 21.703743 2.8549862
-3.4808471 21.704567 2.8995888
-3.4582655 21.705391 2.9441915
-3.4356837 21.706215 2.9887938
-3.4131021 21.707039 3.0333965
-3.3905203 21.707863 3.0779991
-3.3679388 21.708687 3.1226017
-3.3453572 21.709511 3.1672041
-3.3227754 21.710335 3.2118068
-3.3001938 21.711159 3.2564094
-3.277612 21.711983 3.3010118
-3.2550304 21.712807 3.3456144
-3.2324488 21.713631 3.3902171
-3.209867 21.714455 3.4348197
-3.1872854 21.715279 3.4794221
-3.1647036 21.716103 3.5240247
4.4652786 -53.249916 0.049416251
4.4907165 -53.250702 0.09245462
4.5161543 -53.251484 0.135493
4.5415921 -53.25227 0.17853136
4.56703 -53.253052 0.22156973
4.5924678 -53.253838 0.26460809
4.6179056 -53.25462 0.30764648
4.6433434 -53.255405 0.35068485
4.6687813 -53.256187 0.39372322
4.6942191 -53.256973 0.43676159
4.7196569 -53.257755 0.47979996
4.7450948 -53.258541 0.52283829
4.7705326 -53.259323 0.56587666
